# .PCD v0.7 - Point Cloud Data file format
VERSION 0.7
FIELDS x y z intensity
SIZE 4 4 4 4
TYPE F F F F
COUNT 1 1 1 1
WIDTH 1445
HEIGHT 1
VIEWPOINT 0 0 0 1 0 0 0
POINTS 1445
DATA ascii
-3.122514 1.4793277 0.58854121 0
-3.1209252 1.4075266 0.58455235 0
-3.1192114 1.3364877 0.58087099 0
-3.124604 1.2606858 0.57817024 0
-3.1169417 1.2023052 0.57460141 0
-3.1208158 1.1208545 0.57196409 0
-3.1154153 1.0573686 0.56889647 0
-3.1180487 0.97505641 0.56663126 0
-3.1104507 0.92600596 0.56405252 0
-3.1216745 0.8398757 0.56347424 0
-3.1332917 0.76584446 0.56348264 0
-3.1178524 0.70342457 0.56004959 0
-3.1230884 0.61682987 0.55944896 0
-3.1128263 0.5490135 0.55713892 0
-3.118114 0.46217954 0.55720574 0
-3.0982153 0.40761971 0.55400836 0
-3.1132462 0.3384887 0.55610198 0
-1.4056839 2.3515337 0.63631493 0
-3.1096992 0.2703557 0.55564243 0
-3.112812 0.23260713 0.55624592 0
-1.369507 2.3490613 0.63017833 0
-2.9695597 0.20612299 0.53554946 0
-2.8168881 0.20710003 0.51335752 0
-0.045294702 3.1120896 0.67117476 0
-0.023152828 3.1119952 0.67049438 0
-2.1776707 0.20996439 0.62242663 0
-2.0523326 0.2111491 0.5953508 0
-2.1310546 0.20783556 0.61241388 0
-1.9590862 0.20875859 0.57531613 0
-1.8341336 0.21290433 0.54830384 0
-1.5391104 0.21152818 0.64617455 0
1.8189223 4.3872285 0.80370855 0
-1.3947098 0.21273112 0.60473096 0
-1.4605753 0.21302223 0.6235801 0
1.8188689 4.34484 0.79599142 0
1.8162463 4.2553577 0.77951175 0
-1.3339005 0.2123431 0.58736765 0
1.8161225 4.1762366 0.7651546 0
1.8148874 4.0974169 0.7507894 0
-1.2586179 0.21268499 0.56586182 0
1.8170676 3.9952655 0.73255634 0
1.8149614 3.9037793 0.71590948 0
-1.0415323 0.21265364 0.6344049 0
-1.0866227 0.21277261 0.65054619 0
1.8258523 3.8503199 0.70733368 0
-0.90066004 0.21727979 0.5837121 0
-0.95518923 0.21209985 0.60361797 0
-0.80518639 0.21670347 0.64371395 0
-0.68519956 0.21520525 0.61692029 0
-0.53906679 0.21675891 0.65868914 0
-0.61665154 0.2130152 0.58795053 0
1.8161089 3.1009438 0.77803135 0
-0.40265957 0.21859324 0.59023124 0
-0.4656882 0.21467781 0.62232214 0
1.8200971 3.0472081 0.76583141 0
1.8209299 2.9613039 0.7456795 0
1.8243709 2.8314621 0.7158435 0
1.8238778 2.7541113 0.69785553 0
1.8268945 2.7188225 0.69022441 0
1.8258078 2.321317 0.76240158 0
1.8249364 2.2555299 0.74402803 0
1.8239248 2.2041793 0.72983426 0
1.8264248 2.1224189 0.70847833 0
1.8299789 2.0568163 0.69210231 0
1.8270555 2.0009441 0.67692322 0
1.8251328 1.7975684 0.76370633 0
1.8050414 1.7611436 0.74641705 0
1.8328933 1.7558891 0.75415736 0
1.8257813 1.6908209 0.73343891 0
1.8286376 1.6180925 0.71446145 0
1.8292351 1.5573983 0.6987921 0
1.827809 1.481415 0.67916191 0
1.8338517 1.4311858 0.6693607 0
1.8233616 1.2918732 0.75539482 0
1.8327383 1.2636205 0.75292903 0
1.8351986 1.2020648 0.74011773 0
1.9648312 1.1745762 0.66959888 0
1.8818744 1.170799 0.75594068 0
2.1065972 1.1753044 0.72820175 0
2.0394251 1.1754687 0.70044291 0
2.1794934 1.17694 0.75874865 0
2.3603158 1.1730738 0.68367672 0
1.5869157 0.22551194 0.67065251 0
1.5289499 0.21893167 0.63887018 0
2.4540906 1.1763088 0.71627009 0
2.4230194 1.1718529 0.70509249 0
1.7318726 0.2269336 0.67900145 0
1.6647031 0.22439024 0.7156837 0
2.593513 1.177786 0.76454633 0
2.5263453 1.1772428 0.74127662 0
1.8715656 0.22583169 0.71247345 0
1.8147843 0.22547793 0.68411595 0
2.0167794 0.23009622 0.65793574 0
1.9442078 0.22518101 0.71741736 0
2.0953207 0.2273367 0.69147205 0
2.9598975 1.1802012 0.70452523 0
2.2194295 0.22622955 0.74433661 0
2.1629419 0.22893208 0.720056 0
3.1211138 1.181495 0.74884331 0
3.0444665 1.178004 0.72755784 0
2.3892395 0.22880393 0.66775125 0
3.2538283 1.1820004 0.78537154 0
3.1808171 1.180697 0.76519847 0
2.5147207 0.23132068 0.71152812 0
2.4619739 0.22911286 0.69317168 0
2.5757308 0.22915 0.73302895 0
3.9919722 1.1815487 0.73397768 0
4.1029663 1.1812456 0.75662971 0
4.2252045 1.1877382 0.78187388 0
4.2856178 1.1841903 0.79407829 0
4.1822104 0.26074624 0.75557971 0
4.0550814 0.23243642 0.72959995 0
6.4541178 0.24100971 0.80058283 0
6.746747 0.24225044 0.83988637 0
7.0866604 0.24261689 0.88554049 0
6.7774601 -0.54330063 0.84324026 0
6.8036008 -0.58081293 0.84692264 0
-5.4855642 5.1748824 0.69940424 0
-5.4928875 5.0858865 0.69298756 0
-5.057447 5.4758563 0.70082432 0
-5.4905639 5.021945 0.68799955 0
-5.4858742 4.9570603 0.68284887 0
-5.0504379 5.4371796 0.69728106 0
-5.0495024 5.355691 0.69055957 0
-5.4729056 4.8869524 0.67686814 0
-5.4830589 4.8038936 0.67130446 0
-4.8173957 5.4943051 0.69042373 0
-4.8570714 5.4971232 0.69260681 0
-5.045558 5.2254066 0.67979097 0
-5.4788156 4.6678028 0.66112304 0
-4.7309165 5.4975471 0.68649864 0
-5.0422497 5.1139092 0.6706875 0
-5.4805121 4.5528016 0.65297264 0
-5.4847198 4.4413371 0.64535856 0
-4.6185198 5.491734 0.68060565 0
-5.4939013 4.3765221 0.6413945 0
-5.485013 4.3014154 0.63569164 0
-5.4789286 4.1742749 0.62670475 0
-5.4722724 4.0357304 0.61710143 0
-5.4846601 3.9497163 0.61227769 0
-5.4770117 3.8800044 0.60732669 0
-5.4852152 3.8063862 0.60319287 0
-4.0856009 5.5039306 0.65736949 0
-4.1455112 5.4201999 0.65252 0
-4.1534309 5.3485017 0.64652079 0
-5.4782972 3.7512474 0.59930199 0
-5.4712572 3.6712527 0.59392107 0
-3.9969099 5.50876 0.65397096 0
-5.4545875 3.5872803 0.58772874 0
-5.4704318 3.5574512 0.58697414 0
-3.1310904 2.3971627 0.65618461 0
-3.1211469 2.3421814 0.65000671 0
-3.1280639 2.264504 0.64417058 0
-3.1206222 2.2017696 0.63791007 0
-3.1240704 2.1205556 0.63174951 0
-1.4001479 2.9904313 0.75863534 0
-1.1982254 3.1243005 0.76226068 0
-1.2631084 3.0656753 0.75726742 0
-1.3415596 3.0082386 0.7548303 0
-1.40315 2.9622221 0.75324547 0
-1.1474199 3.1321216 0.7582106 0
-1.1781785 2.337348 0.78319526 0
-0.90492535 2.4869742 0.77015364 0
-0.95235026 2.4384274 0.76562613 0
-1.0251904 2.3712125 0.76168823 0
-1.1069785 2.3353891 0.76851583 0
-0.70893359 2.6012409 0.77064908 0
-0.76786 2.554846 0.76643109 0
-0.84754884 2.4972196 0.76327509 0
-0.91855127 2.4461846 0.76166391 0
-0.97084129 2.3934884 0.75720745 0
-2.5634556 0.20444238 0.70596313 0
-0.49607229 2.7071781 0.77372605 0
-0.58718157 2.6662016 0.77279496 0
-0.66179705 2.6151814 0.76789844 0
-0.7097891 2.567096 0.7609992 0
-2.4824922 0.20504856 0.68842602 0
-0.30903637 2.787421 0.7787506 0
-0.37340289 2.7556367 0.77511597 0
-0.44850469 2.7140093 0.77027625 0
-2.3010368 0.21073818 0.64906245 0
-2.3894606 0.20791948 0.66824126 0
-0.15225279 2.832273 0.78019214 0
-0.25016242 2.7942495 0.77570373 0
-0.30548412 2.7654383 0.77147812 0
-2.2399521 0.21005666 0.63587642 0
-0.010571539 2.9529061 0.81111628 0
-0.035219789 2.8620558 0.78251368 0
-0.10341448 2.832727 0.77701354 0
-0.39624718 2.3456044 0.80864543 0
-0.40271196 2.3369806 0.80657518 0
-0.32022059 2.3428569 0.795443 0
1.8153703 4.958806 0.90810609 0
1.8051844 4.8686256 0.89070964 0
-0.11297351 2.3832788 0.78251284 0
-0.17733979 2.3489723 0.7772634 0
-0.24126834 2.3294578 0.77844995 0
-1.8124251 0.21098173 0.72482955 0
1.8149824 4.849225 0.88791645 0
1.8139606 4.767921 0.87290245 0
-0.011741877 2.4602613 0.80245352 0
-0.044687271 2.3707573 0.77010894 0
-1.6932878 0.20846176 0.6906234 0
-1.7471691 0.2104218 0.70604795 0
1.808578 4.6747665 0.85538101 0
1.810184 4.6076412 0.84321779 0
1.8121758 4.5436373 0.8316741 0
-1.6061771 0.20962191 0.66552448 0
1.8165405 4.4671278 0.81807029 0
-1.3245704 0.2132442 0.73618507 0
-1.191548 0.21151817 0.68834686 0
-1.2565029 0.21529305 0.71145892 0
-1.1266748 0.2087419 0.66524392 0
-0.91732764 0.21457154 0.71715087 0
-0.99550962 0.21247745 0.75141501 0
1.8174745 3.5735321 0.89249241 0
-0.8486442 0.21407783 0.68741882 0
1.8176929 3.5464153 0.88588142 0
1.8187046 3.4818308 0.8702423 0
1.8128848 3.4037018 0.85045695 0
-0.68738437 0.21398276 0.73442143 0
1.8202924 3.3461993 0.83750719 0
1.8211911 3.2649636 0.81801522 0
-0.58614033 0.21672523 0.68245214 0
-0.61478841 0.21323395 0.6975711 0
1.8220265 3.1989765 0.80228496 0
1.8093348 2.7357938 0.8782028 0
1.81876 2.6798441 0.86355752 0
1.8235905 2.6112289 0.84444928 0
1.8195708 2.5467217 0.82491291 0
1.8225439 2.468648 0.80314833 0
1.8279668 2.404304 0.78606188 0
1.8256578 2.140193 0.87079734 0
1.8177429 2.1142006 0.85998565 0
1.8225162 2.0498838 0.84055805 0
1.8264291 1.9763803 0.81843227 0
1.8283613 1.9105363 0.79861081 0
1.8251736 1.8563399 0.78115332 0
1.8234856 1.6493481 0.85902876 0
1.8224459 1.6195097 0.84891349 0
1.8301349 1.5528171 0.83124465 0
1.8265451 1.4727471 0.80563951 0
1.8309102 1.4169828 0.79171669 0
1.827795 1.3442824 0.77079415 0
1.8256589 1.1738851 0.854792 0
1.9591174 1.1728543 0.79410923 0
1.9155214 1.1768255 0.77356607 0
2.0395558 1.1732638 0.83376002 0
2.2202716 1.1786649 0.77598655 0
2.3023524 1.1769276 0.81009167 0
2.4343009 1.1777105 0.86567456 0
2.3891566 1.1777481 0.84665996 0
1.7474419 0.22541615 0.76362854 0
1.861873 0.22127721 0.83141124 0
1.8210473 0.22291827 0.80714834 0
2.752414 1.1778257 0.81964654 0
2.679142 1.1782386 0.7942518 0
2.0166237 0.23258996 0.78473002 0
1.9803267 0.22491765 0.7672922 0
2.8311372 1.1773953 0.84698963 0
2.0763507 0.22579008 0.81575942 0
2.9308019 1.1806629 0.88201463 0
2.3837628 0.22702044 0.81448448 0
2.299674 0.22775018 0.77846313 0
2.4330778 0.22900438 0.83547586 0
3.3359725 1.1795512 0.80783713 0
3.4504874 1.1821402 0.83957589 0
3.5929031 1.1832349 0.87896186 0
3.5393143 1.1837487 0.86419117 0
3.6698871 1.1811531 0.90011817 0
3.5196514 0.22010207 0.83881605 0
3.5057099 0.20196271 0.83531559 0
3.5922408 0.23055899 0.85879683 0
3.5247831 0.13803589 0.84218329 0
4.9133439 0.23637986 0.9059155 0
5.07864 0.23647368 0.93991137 0
7.4371233 0.24467087 0.93263268 0
-5.4898453 5.4040308 0.7175203 0
-5.4898329 5.3224707 0.71110791 0
-5.4935937 5.2446265 0.70523578 0
-0.7349087 5.5181255 0.93932021 0
-0.79441786 5.5100079 0.9388485 0
-0.68143022 5.5147576 0.93787771 0
-0.46321034 5.546073 0.94136024 0
-0.51677907 5.5154247 0.93607974 0
-1.2222571 2.3452563 0.79404145 0
-1.2361666 2.3354819 0.79456592 0
-2.7147665 0.20622039 0.73870921 0
-2.6500392 0.20362961 0.72472978 0
1.7981949 5.5182838 1.0102826 0
1.8099263 5.4613419 1.0005732 0
1.8117673 5.3678632 0.98338324 0
1.8132585 5.308672 0.97253555 0
1.8101258 5.2335739 0.95840794 0
-0.41765794 2.3494494 0.81367278 0
-0.42958578 2.3499808 0.81591308 0
1.8077897 5.1037998 0.93425626 0
-1.9099457 0.20658851 0.75313377 0
1.8114774 5.0009861 0.91557306 0
-1.418478 0.2064358 0.77061379 0
1.8165612 3.9414203 0.98322952 0
-1.0397478 0.21217155 0.77075285 0
1.8167975 3.8423214 0.9586553 0
1.8197689 3.7704608 0.94123292 0
1.8155437 3.6840301 0.91939551 0
1.8211743 3.6248868 0.90555596 0
-0.78193349 0.20982796 0.7834605 0
1.8178275 3.0822308 0.98424864 0
1.8180916 3.0421438 0.97205389 0
1.8182535 2.9547899 0.94555187 0
1.8232601 2.8987026 0.92954391 0
1.8234215 2.8282585 0.90847296 0
1.8217849 2.7407727 0.88211918 0
1.8210624 2.4380121 0.97077268 0
1.827513 2.4212608 0.96661699 0
1.8163671 2.3308735 0.93239522 0
1.8188219 2.2571368 0.9078697 0
1.8380334 2.2537112 0.91208512 0
1.8236918 2.2034397 0.89122999 0
1.818635 1.9532253 0.96414518 0
1.8208871 1.9052167 0.94717306 0
1.8224429 1.8232548 0.91816658 0
1.8162748 1.757906 0.89270198 0
1.8276989 1.760623 0.8981759 0
1.8281931 1.7090304 0.8808468 0
1.8212579 1.5226717 0.95938396 0
1.8214412 1.4681511 0.94038898 0
1.8286893 1.4019082 0.92216015 0
1.8248365 1.3240081 0.89585859 0
1.8239024 1.2624325 0.87733227 0
1.8302464 1.2109275 0.86701071 0
1.9658158 1.1778593 0.93600225 0
1.89696 1.1741643 0.89555794 0
2.1115296 1.1795614 0.87051523 0
2.0039773 1.1735578 0.95705533 0
2.1784711 1.1759485 0.9031477 0
2.2828186 1.1764667 0.95534837 0
2.487391 1.1793554 0.88829577 0
2.5935841 1.1767613 0.93292642 0
2.5240602 1.1756589 0.90333247 0
2.6668177 1.1777554 0.96413702 0
2.993854 1.1824982 0.90417957 0
3.0854335 1.1811607 0.93606806 0
3.0137324 1.1783906 0.91076362 0
3.2421284 1.1826243 0.99105799 0
3.1672835 1.1808376 0.96468741 0
3.8091607 1.1834493 0.93878192 0
3.9561925 1.1851325 0.97959578 0
4.0777254 1.1808457 1.0130532 0
5.2414837 0.23788965 0.97341049 0
5.4440699 0.23716092 1.0150969 0
8.6258926 0.21792579 1.0921173 0
8.8184767 0.24958992 1.1182801 0
-3.1367326 4.8793879 0.96197098 0
-3.2007203 4.8279181 0.96004885 0
-3.1292298 4.8140254 0.95173162 0
-3.1277421 2.1723218 0.92754227 0
-3.1319869 2.1071219 0.9213503 0
-3.125515 2.0495014 0.91396368 0
-3.1307547 1.9740272 0.90739077 0
-3.1375566 1.9066312 0.90219194 0
-3.131072 1.8356098 0.89424539 0
-3.1293082 1.7669414 0.88770682 0
-3.1198773 1.6969565 0.87978166 0
-3.1252794 1.6052961 0.87350368 0
-3.1295545 1.5470678 0.86996317 0
-3.1232283 1.4671943 0.86291265 0
-3.1105335 1.3998743 0.85563421 0
-3.125227 1.3386805 0.85493845 0
-3.1315837 1.2631117 0.85182655 0
-3.1137216 1.1968472 0.84439182 0
-3.1253383 1.1166244 0.84292001 0
-3.1239176 1.0536553 0.83977807 0
-3.1278014 0.97286093 0.83740896 0
-3.1159992 0.89729464 0.83216602 0
-3.1266079 0.83728242 0.8326897 0
-3.1322765 0.74936235 0.83165079 0
-3.1035655 0.77307796 0.82592672 0
-3.1199312 0.70730209 0.8280949 0
-3.1239233 0.62301874 0.82752955 0
-3.1171002 0.55318785 0.82523066 0
-3.1193175 0.47111022 0.82516479 0
-3.151752 0.40103281 0.83212703 0
-3.1058168 0.41208231 0.82210082 0
-3.1250443 0.32812214 0.82656956 0
-3.1175399 0.2665863 0.82537895 0
-3.1240613 0.20965219 0.82748973 0
1.7934169 5.6065845 1.0263427 0
1.8084645 4.4200993 1.1022717 0
1.8123819 4.3888516 1.0948151 0
1.8123233 4.3252945 1.0788049 0
1.8113339 4.2408123 1.0574601 0
1.8092961 4.175694 1.0408936 0
1.8093972 4.1001573 1.0219934 0
1.8173442 4.0488715 1.0100875 0
1.8145227 4.0053215 0.99889839 0
1.8162442 3.4105425 1.0856051 0
1.8154054 3.3345404 1.0617516 0
1.8128892 3.2577827 1.0374711 0
1.8158743 3.2072961 1.0223604 0
1.8128498 3.1246862 0.99638999 0
1.8178682 2.6929226 1.0609878 0
1.8188572 2.6096401 1.0311168 0
1.8203788 2.5536413 1.011453 0
1.8207974 2.4912655 0.98943305 0
1.8203942 2.1854479 1.0547711 0
1.8175725 2.1081507 1.0231618 0
1.8230444 2.054852 1.0043826 0
1.8199871 1.9916611 0.97910845 0
1.8177387 1.7885833 1.0604918 0
1.8244188 1.7544016 1.0495515 0
1.8237174 1.6816422 1.0202923 0
1.8205414 1.6073358 0.99000412 0
1.8247159 1.5726863 0.97921503 0
2.1099749 1.1755124 1.0190809 0
2.0495148 1.1737416 0.98350739 0
2.1714299 1.176126 1.0551283 0
2.3449786 1.1733794 0.9860329 0
2.4407115 1.1751623 1.0345365 0
2.5013275 1.171852 1.0646499 0
2.7414384 1.1816595 0.99633557 0
2.8165712 1.1765304 1.0277774 0
2.9323912 1.1796374 1.0775899 0
3.3178122 1.1789267 1.0173126 0
3.4466119 1.1795623 1.0626031 0
3.5386903 1.1816701 1.0951434 0
4.2389021 1.1872314 1.0581075 0
4.3089252 1.1849921 1.0774295 0
4.1829643 0.26529098 1.0229248 0
4.3049464 0.28763485 1.0567608 0
4.1809473 0.22254133 1.0228717 0
4.178093 0.17669463 1.0227541 0
5.6525965 0.23733377 1.0580155 0
5.8648252 0.23863482 1.1017071 0
6.1017551 0.23960257 1.1504949 0
9.3696976 1.5870805 1.2158535 0
9.3619833 1.5265541 1.2133009 0
9.380846 1.4537947 1.2140535 0
9.3874683 1.3797624 1.2132044 0
9.3785496 1.3045759 1.2103059 0
9.3862839 1.2605388 1.2103782 0
9.3757381 1.1706913 1.2070757 0
9.3639927 1.0811024 1.203691 0
9.3787251 1.0225513 1.2045523 0
9.3699989 0.94818926 1.2020108 0
9.3724775 0.8890903 1.2013054 0
9.3708296 0.8151238 1.1998446 0
9.3896561 0.7414813 1.2012036 0
9.3721647 0.65255547 1.1975292 0
9.3527336 0.57881689 1.1938801 0
9.3842793 0.50463343 1.1971601 0
9.3547211 0.43130088 1.1922848 0
9.367878 0.38668942 1.1935436 0
9.3734455 0.31253338 1.1934956 0
9.3735638 0.25333023 1.1929175 0
-3.1472888 5.5148621 1.0587311 0
-2.8951459 5.6565928 1.0623112 0
-3.0234494 5.5033011 1.0474893 0
-3.0977249 5.492084 1.0514009 0
-3.144031 5.4269943 1.0449425 0
-2.8976951 5.5716662 1.049001 0
-2.9490404 5.5044055 1.0421238 0
-3.141278 5.2299433 1.0146706 0
-3.1442823 5.1711969 1.0060445 0
-3.1292951 5.0918493 0.99288219 0
-3.1451149 5.0354214 0.9857772 0
-3.2712369 4.8302169 0.9666481 0
-3.1494184 4.981101 0.97806829 0
-3.13309 4.9329114 0.96954322 0
-3.2318082 4.8435335 0.96505982 0
-3.1324437 2.3895092 0.95362067 0
-3.1215525 2.3169036 0.9428215 0
-3.1284387 2.2457108 0.93591583 0
-3.1376526 2.2056174 0.93321443 0
1.8046525 4.8149633 1.2019264 0
1.8039224 4.7349377 1.1815084 0
1.8066853 4.6939931 1.1713952 0
1.8072202 4.5988402 1.1473291 0
1.8101194 4.4920712 1.1206211 0
1.8109765 3.7478664 1.191215 0
1.8147401 3.6965985 1.1755064 0
1.8123405 3.6030645 1.1455188 0
1.8141974 3.5375681 1.1251457 0
1.8124192 3.4664195 1.1024933 0
1.8113534 2.9599469 1.1579982 0
1.8198639 2.9005542 1.1377456 0
1.817139 2.8159785 1.1058574 0
1.8158813 2.4489746 1.1616019 0
1.8137697 2.3936949 1.1377338 0
1.8179784 2.3135276 1.1059072 0
1.8144015 2.2440553 1.0763065 0
1.8234863 2.0277591 1.1667114 0
1.820016 1.9705487 1.1396608 0
1.8254783 1.9069659 1.1141666 0
1.819864 1.8443391 1.0848324 0
2.2251534 1.1758788 1.0865811 0
2.2986412 1.17417 1.1295218 0
2.5828938 1.1764948 1.1066508 0
2.5492413 1.1781278 1.0898365 0
2.6688192 1.1769925 1.1503532 0
2.9845533 1.1789274 1.0998312 0
3.0843339 1.1793377 1.1426302 0
3.0139356 1.1769508 1.112206 0
3.1792362 1.1816638 1.183593 0
3.5919025 1.1810317 1.1138229 0
3.6646411 1.1781135 1.139228 0
3.8258731 1.1840463 1.1964866 0
6.3914785 0.23857665 1.2101616 0
6.6654663 0.24052095 1.266606 0
-4.1551876 5.4897408 1.1414968 0
-4.1918097 5.4946012 1.1456083 0
-4.0161123 5.507843 1.1312143 0
-4.0893164 5.5029712 1.1372526 0
-5.4800911 3.7510071 1.0829648 0
-5.4892969 3.6665337 1.0762062 0
-3.9394937 5.4914126 1.1219063 0
-5.4752092 3.5839043 1.0667536 0
-5.4974251 3.5696154 1.0683144 0
-3.1161687 0.9671551 1.111576 0
-3.1260273 0.81918061 1.1088551 0
-3.1097198 0.76913774 1.1025807 0
-3.1228096 0.69356632 1.1046717 0
-3.1300325 0.61542141 1.1053965 0
-3.1208453 0.54771197 1.1019921 0
-3.1196575 0.47375655 1.1012933 0
-3.1170659 0.4090699 1.1006333 0
-3.1184247 0.33286059 1.1016489 0
-3.1107409 0.25176215 1.1005337 0
-3.1137486 0.2390238 1.1016471 0
1.8041551 5.2443676 1.3114859 0
1.8037505 5.1806598 1.295141 0
1.8028255 5.0871243 1.2711382 0
1.8025794 4.9708004 1.2414167 0
1.8042269 4.893517 1.2218785 0
1.8106863 4.085444 1.2992202 0
1.8069131 4.0382199 1.283494 0
1.8115884 3.9800394 1.265481 0
1.806119 3.8964186 1.237891 0
1.8112354 3.82796 1.216777 0
1.8129251 3.3044403 1.288924 0
1.8069546 3.2562261 1.2692307 0
1.8116169 3.1868658 1.2437202 0
1.8180934 3.1134481 1.2172077 0
1.810716 3.0469348 1.1904984 0
1.8132603 2.6763048 1.2583412 0
1.8139718 2.6083128 1.2290411 0
1.8179907 2.548835 1.2046661 0
1.814471 2.4941416 1.1802708 0
1.811359 2.261745 1.2709384 0
1.8109572 2.2497039 1.265004 0
1.816761 2.1906586 1.2392815 0
1.818688 2.1079521 1.2013253 0
1.8217251 2.063086 1.1820092 0
2.4433303 1.1749527 1.2152909 0
2.3856525 1.1783249 1.1817079 0
2.5334923 1.1762145 1.2691106 0
2.7512736 1.1790042 1.1925831 0
2.8069191 1.1768925 1.2206689 0
2.8953378 1.1778295 1.2659421 0
3.2290342 1.1781925 1.2046428 0
3.3255181 1.1786206 1.2461891 0
3.4102876 1.1756988 1.2824172 0
3.9462054 1.1810997 1.2387468 0
4.0973759 1.1813705 1.2921636 0
4.1746583 0.26453137 1.2978115 0
4.1743822 0.20925403 1.2988302 0
4.1756191 0.12886143 1.3013906 0
5.0230527 0.23597538 1.2577459 0
5.2042437 0.23545802 1.3083745 0
6.9686193 0.24252462 1.3290716 0
7.3413768 0.24254465 1.4058845 0
6.7797155 -0.54171562 1.2961183 0
6.7797732 -0.57416344 1.2967397 0
-5.4936981 4.7784767 1.1921954 0
-4.8011527 5.491662 1.2047079 0
-4.8911066 5.5067701 1.2158372 0
-5.49755 4.6630716 1.1796339 0
-5.5010643 4.5925236 1.1721975 0
-4.6530261 5.5031219 1.1913761 0
-4.7149682 5.4949856 1.1964679 0
-5.489459 4.5274758 1.1636713 0
-5.4872341 4.4312525 1.1529522 0
-4.5473599 5.518168 1.1829792 0
-4.567687 5.4884076 1.1809424 0
-5.4782567 4.3787818 1.1462324 0
-5.4993081 4.2941856 1.1397976 0
-4.4389338 5.4956307 1.1693422 0
-5.4916377 4.1662593 1.1255448 0
-4.3329487 5.5059514 1.1605591 0
-5.4879179 4.0296187 1.1111872 0
-5.4963341 3.9282942 1.1021588 0
-4.2385378 5.4930668 1.1497954 0
-5.4807768 3.8763506 1.0951229 0
-5.4880271 3.8066289 1.0892828 0
-0.76588833 5.5224805 1.3121072 0
-0.8152957 5.5094447 1.3106084 0
-0.70011508 5.5068693 1.3058637 0
-0.48053575 5.6534185 1.3376753 0
-0.52915072 5.5182905 1.3038828 0
-3.1212649 2.1546049 1.2238463 0
-3.138618 2.0897851 1.2197362 0
-0.46565533 5.5030613 1.2984473 0
-3.124253 2.0557332 1.2113169 0
-3.1332397 1.967648 1.2024715 0
-3.1448097 1.9020598 1.1975836 0
-3.1281826 1.8278782 1.1843092 0
-3.1343293 1.7618355 1.1785735 0
-3.128108 1.6995192 1.170171 0
-3.1360137 1.6217991 1.1644665 0
-3.124408 1.5528852 1.1545589 0
-3.1353517 1.4641376 1.1497356 0
-3.1420002 1.4006976 1.1462963 0
-3.1311147 1.334335 1.1380285 0
-3.1337256 1.2453841 1.132356 0
-3.1079001 1.2664212 1.1263468 0
-3.1264541 1.1888974 1.126575 0
-3.1346073 1.106512 1.1239812 0
-3.1222348 1.0486586 1.1172594 0
-3.1399617 0.96936762 1.1186802 0
-3.1301804 0.90000427 1.1128788 0
-3.1357481 0.87553942 1.11359 0
-3.1418116 0.74550521 1.1113666 0
-3.1398168 0.70413959 1.1098474 0
-3.1483645 0.42274189 1.1097287 0
-3.1326351 0.31182802 1.1060421 0
-3.1488094 0.27290165 1.1112759 0
-3.1260746 0.18149948 1.1065099 0
-3.1312168 0.11177206 1.1098485 0
-3.1252937 0.049550772 1.1101782 0
1.783412 5.6048589 1.4021411 0
1.7859199 5.5066609 1.377103 0
1.8012007 5.4636073 1.3674341 0
1.8025596 5.3674293 1.3428743 0
1.798928 5.2880874 1.3221933 0
1.8044224 4.3869419 1.395859 0
1.8065047 4.3295979 1.377532 0
1.8058636 4.2453375 1.3501561 0
1.8080256 4.1920738 1.3332324 0
1.8086591 4.1360607 1.3152456 0
1.8096383 3.5543709 1.3848954 0
1.8097835 3.4607244 1.3485813 0
1.8073951 3.3407066 1.301752 0
1.8067076 2.9219556 1.3651493 0
1.8101027 2.8267155 1.3236393 0
1.8063116 2.7616959 1.2937936 0
1.8152558 2.7356806 1.2848631 0
1.8154693 2.4541955 1.3666774 0
1.8150141 2.400974 1.3401319 0
1.813661 2.3244116 1.302164 0
2.5885835 1.1768849 1.3020611 0
2.7241645 1.178598 1.3833796 0
2.6495774 1.1745578 1.3380976 0
2.9700327 1.1783407 1.3042158 0
3.096138 1.1802623 1.369077 0
3.0200279 1.1767324 1.3296192 0
3.1499875 1.1783323 1.3964812 0
3.5042851 1.1834924 1.323652 0
3.5749037 1.1810172 1.3538929 0
3.7030168 1.1772481 1.4088885 0
3.6419961 1.1772929 1.3825288 0
4.2420087 1.1850023 1.3435304 0
4.2834058 0.28492057 1.3361564 0
5.381815 0.23646474 1.3579948 0
5.5712399 0.2377286 1.4109409 0
-5.4612064 5.4931498 1.2739166 0
-5.4974656 5.4392681 1.271139 0
-5.3281693 5.5012836 1.2606926 0
-5.369163 5.485188 1.2630342 0
-5.4869661 5.3816686 1.2628884 0
-5.4890065 5.3020487 1.2533741 0
-5.4934554 5.2250748 1.244523 0
-5.2232347 5.4969544 1.2490296 0
-5.4995604 5.1661434 1.2381241 0
-5.4948668 5.0840793 1.2278186 0
-5.1074433 5.4980254 1.2370213 0
-5.4970207 5.0234962 1.2209096 0
-5.5009303 4.9342051 1.210927 0
-5.504777 4.8609786 1.2028985 0
-3.1461358 4.8422861 1.3667862 0
-3.146348 2.4027214 1.2669086 0
-3.1304288 2.3349948 1.2524207 0
-3.1421556 2.2583361 1.2441688 0
-3.135654 2.1968312 1.2336261 0
-3.154983 2.1539004 1.2328222 0
1.8016694 4.7039742 1.4988282 0
1.8045921 4.6640391 1.4861429 0
1.7994208 4.5747762 1.4563475 0
1.8031492 4.4714508 1.4231671 0
1.8075967 3.8349166 1.494419 0
1.8019259 3.7563605 1.4624861 0
1.8067374 3.6771305 1.4322882 0
1.8114817 3.6010399 1.4034286 0
1.8069937 3.1660244 1.4757216 0
1.8010786 3.089452 1.4393265 0
1.8067844 3.0389185 1.4178492 0
1.8111795 2.9878325 1.3959215 0
1.8076907 2.6586132 1.4673806 0
1.8092779 2.6113844 1.4437405 0
1.811713 2.5454903 1.4111249 0
1.8093945 2.4925458 1.3836412 0
2.7465272 1.1764543 1.396431 0
2.8211694 1.1789601 1.4415994 0
2.8772445 1.1761765 1.4748492 0
3.2487006 1.1804044 1.4474483 0
3.200676 1.1798158 1.4226941 0
3.3222971 1.1809616 1.4853748 0
3.8588228 1.1815754 1.4766244 0
3.8004556 1.1830201 1.4515013 0
3.919302 1.180083 1.5026728 0
5.781424 0.23869443 1.4697062 0
6.0319118 0.23815489 1.5397629 0
-2.7610881 5.5086741 1.4604 0
-3.2908926 4.8326688 1.3846521 0
-2.5504017 5.6198473 1.4628174 0
-2.6012619 5.5804691 1.4592174 0
-2.6908157 5.52812 1.4570475 0
-3.1489723 4.960731 1.3911536 0
-3.1461406 4.8780179 1.3740135 0
-3.2197518 4.8252888 1.3733941 0
-2.4931574 5.6397223 1.4615543 0
-2.5602202 5.5619249 1.4507644 0
-3.1241481 1.1438636 1.4140298 0
-3.1255765 1.112728 1.4123944 0
-3.1247663 1.0501978 1.408096 0
-3.1359563 0.95785999 1.4070408 0
-3.1332092 0.8955431 1.4030039 0
-3.1353624 0.82758856 1.4010808 0
-3.1459494 0.76607823 1.4028692 0
-3.1219945 0.75291312 1.3936017 0
-3.1328011 0.69154692 1.3960825 0
-3.1391656 0.60514319 1.3968803 0
-3.1073556 0.61766052 1.385236 0
-3.1329265 0.55176389 1.3940378 0
-3.1410174 0.4691329 1.3968104 0
-3.130672 0.39543867 1.3933864 0
-3.1299748 0.32116771 1.3941666 0
-3.1253898 0.2656914 1.3935947 0
-3.1291599 0.18427682 1.3973516 0
-3.1200342 0.0633533 1.3987484 0
1.8015474 4.9979897 1.5952151 0
1.7979541 4.9010911 1.5629537 0
1.7978435 4.8200226 1.5363507 0
1.7968229 4.7382736 1.5094458 0
1.8011272 4.0782409 1.5896217 0
1.8015325 4.0425367 1.5755035 0
1.8026208 3.9567437 1.5416787 0
1.8033948 3.8732266 1.5087831 0
1.8074985 3.4037726 1.5853543 0
1.8083425 3.319243 1.5464556 0
1.8068751 3.2331023 1.5064172 0
1.8051543 3.206677 1.4938723 0
1.8059393 2.8301058 1.5558126 0
1.7991009 2.7405512 1.5068334 0
1.8123165 2.7181878 1.4996171 0
2.9570436 1.1779659 1.523131 0
3.0189016 1.1747774 1.5599275 0
3.4043653 1.1774483 1.5272484 0
3.51406 1.1831851 1.584425 0
3.9889636 1.1796567 1.5327988 0
4.0704222 1.1806121 1.568161 0
4.1442308 1.1798379 1.6000881 0
4.1663561 0.25438547 1.5857974 0
4.2227044 0.2857641 1.6096017 0
4.1637125 0.19935751 1.5862452 0
4.169765 0.13067901 1.5913714 0
4.9808159 0.23418629 1.5851043 0
5.1360989 0.2355969 1.6403686 0
6.2662482 0.24042439 1.6053085 0
8.6680765 0.2477324 1.6793907 0
8.6117353 0.20974708 1.6675639 0
-3.1392145 2.0394368 1.5235493 0
-3.1383896 1.9619308 1.5112648 0
-3.1290469 1.8962542 1.4981788 0
-3.1391592 1.8311079 1.4924661 0
-3.1421292 1.7437706 1.4816221 0
-3.1349363 1.6746684 1.4702245 0
-3.1364379 1.6021054 1.4619458 0
-0.055157661 5.4985595 1.665759 0
-3.1300473 1.5531529 1.4540162 0
-3.1392441 1.4589226 1.4471395 0
0.12631178 5.507453 1.6679695 0
0.012718439 5.4866657 1.6611787 0
-3.1358602 1.329464 1.4333889 0
-3.1379111 1.2468925 1.4269483 0
0.26597524 5.5170956 1.6721029 0
0.17654538 5.4995871 1.6654605 0
-3.1396618 1.1964892 1.4236239 0
0.37294829 5.520792 1.6749136 0
0.30719876 5.5176105 1.6727846 0
-3.1422019 1.0521098 1.4145945 0
0.52938819 5.5208139 1.6785232 0
0.46356559 5.5188923 1.6761725 0
0.6034503 5.518147 1.6799296 0
0.74323082 5.5145273 1.6839875 0
0.67719936 5.5046158 1.6779221 0
0.87222028 5.5134239 1.6896445 0
0.81738758 5.5160046 1.6878097 0
-3.1341023 0.036424637 1.4050722 0
-3.1256409 -0.03548646 1.4056605 0
-3.1264071 -0.088709116 1.4090742 0
-3.1358218 -0.13322115 1.4152817 0
1.799613 5.3266296 1.7032716 0
1.7956681 5.2155161 1.6661509 0
1.8001392 5.1097507 1.6318152 0
1.8007836 4.3143091 1.6837488 0
1.8014786 4.2340031 1.6517491 0
1.8032123 4.1796474 1.6303463 0
1.804626 4.1258335 1.6091412 0
1.8048196 3.6002531 1.676403 0
1.8009703 3.5346277 1.6448177 0
1.8053659 3.4640799 1.6129044 0
1.8051896 3.0363319 1.6646699 0
1.8013862 2.9406073 1.6125913 0
3.0973823 1.1787398 1.607839 0
3.2002432 1.1777997 1.6698415 0
3.1618443 1.1789804 1.6467966 0
3.5927954 1.1820571 1.6249365 0
3.7043195 1.1750808 1.68183 0
3.6634197 1.1787707 1.6610677 0
4.276309 1.1873147 1.6579338 0
5.3217902 0.23550236 1.7064966 0
6.5673389 0.23988438 1.6895528 0
6.8748946 0.2409749 1.7756206 0
6.7673473 -0.54834843 1.7585505 0
6.7710962 -0.58155251 1.7606621 0
9.3587866 1.909703 1.8606666 0
9.3444319 1.87747 1.8564544 0
9.3550339 1.8036628 1.8557907 0
9.3705597 1.7304366 1.8562467 0
9.3636999 1.6545408 1.8521489 0
9.3650932 1.5797415 1.8498718 0
9.3674221 1.5201197 1.8484011 0
9.3516951 1.4290745 1.8423173 0
9.3418341 1.3686771 1.8384809 0
9.3580551 1.2956376 1.8397492 0
9.3631306 1.2216625 1.8387852 0
9.3548126 1.1617348 1.8355384 0
9.3467588 1.1019959 1.8324096 0
9.3599167 1.0285969 1.8334334 0
9.3655891 0.93991208 1.8326855 0
9.3612452 0.88052821 1.8305999 0
9.3622351 0.80652118 1.8294235 0
9.3715782 0.73270464 1.8300774 0
9.3594151 0.64381862 1.8261915 0
9.3675289 0.52540278 1.8262677 0
9.3637924 0.45149612 1.8246313 0
9.3634567 0.3774929 1.823827 0
9.368042 0.30328894 1.8241241 0
9.2437658 0.24950552 1.7981045 0
9.3863592 0.27289581 1.8276725 0
-4.178153 5.4916425 1.638852 0
-4.2070751 5.4885554 1.6424302 0
-4.0408249 5.5121536 1.623271 0
-4.1085262 5.5012918 1.6307592 0
-5.4964194 3.7450814 1.5795941 0
-5.4981546 3.6569185 1.5687433 0
-5.5181522 3.590976 1.5643715 0
-3.9692194 5.5013957 1.6111137 0
-5.4895363 3.5521259 1.5540363 0
-3.1433825 2.4075415 1.5891961 0
-3.1506751 2.3806231 1.5865443 0
-0.61191869 5.5229869 1.6895726 0
-0.64189851 5.5035439 1.6845285 0
-3.1382003 2.3242369 1.5719951 0
-3.1524005 2.2468965 1.562819 0
-0.53169823 5.5132623 1.6829358 0
-3.139111 2.18278 1.5471884 0
-3.141686 2.104486 1.5349317 0
-0.40363598 5.5166874 1.6793867 0
-0.46147394 5.5070891 1.6781467 0
-0.25841475 5.5123701 1.6738701 0
-0.32601213 5.511693 1.6753576 0
-0.11589837 5.5152988 1.6721592 0
-0.17419744 5.5120211 1.6720095 0
-0.047480822 5.5162129 1.6716765 0
0.059170485 5.5156593 1.6708052 0
0.22377014 5.529355 1.6758736 0
0.90061426 5.5276299 1.6959473 0
1.0244441 5.5207138 1.7006681 0
0.95851076 5.5261879 1.6986372 0
1.1506579 5.5327692 1.7129802 0
1.0996068 5.5241022 1.7066061 0
1.3035398 5.544282 1.7282219 0
1.2328825 5.520164 1.7146804 0
1.1651028 5.5133762 1.7074273 0
1.3601583 5.5272722 1.7271063 0
1.504596 5.5269513 1.7396249 0
1.4545881 5.5143051 1.7308714 0
1.6589394 5.5251946 1.7539964 0
1.5889592 5.5199523 1.7453109 0
1.7260066 5.5151043 1.7576489 0
1.79431 5.474618 1.7516022 0
1.7970548 5.3828735 1.7215645 0
1.7908266 4.5731721 1.7861533 0
1.7981033 4.526125 1.7683225 0
1.801873 4.4695826 1.746179 0
1.7958059 4.3840818 1.7109051 0
1.7968829 3.8086705 1.7729015 0
1.8008753 3.7551365 1.7484275 0
1.7992642 3.6745963 1.7101201 0
1.8011035 3.2448628 1.7757567 0
1.800902 3.1653061 1.7326627 0
1.8002362 3.0882444 1.6909782 0
3.2975307 1.1786889 1.7288249 0
3.3828878 1.1761184 1.7801883 0
3.8559141 1.1785228 1.7605857 0
3.8157585 1.1831313 1.7402639 0
3.9460337 1.1818063 1.8075562 0
5.5163488 0.23595047 1.7757938 0
5.7140446 0.23747253 1.8462162 0
7.2276025 0.24147797 1.8743435 0
-4.7435665 5.4999151 1.7245953 0
-5.4968967 4.515142 1.6866621 0
-5.5070772 4.4269004 1.6754683 0
-4.6107979 5.4912057 1.7027559 0
-5.4982624 4.3745775 1.6662245 0
-5.5031033 4.294096 1.6554883 0
-4.4621606 5.4966803 1.6814328 0
-5.4863977 4.2153959 1.6412107 0
-5.4999967 4.1418085 1.6334023 0
-5.5061049 4.0778465 1.6256728 0
-4.34304 5.4944062 1.6633726 0
-5.4990234 4.0072618 1.6147186 0
-5.5075855 3.9325957 1.6062694 0
-4.2559719 5.4891138 1.6496303 0
-5.4892473 3.8574154 1.5928359 0
-5.5036325 3.8002384 1.588092 0
-3.1481967 3.0885038 1.7370651 0
-3.2013121 3.0193236 1.7371013 0
-3.2748487 2.9156699 1.7364939 0
-3.1170087 1.0936995 1.7133272 0
-3.1322074 0.94006038 1.7098409 0
-3.1259744 0.90244603 1.7049708 0
-3.1402566 0.81069732 1.7072453 0
-3.1472597 0.74913216 1.7081071 0
-3.1400347 0.67493296 1.7028848 0
-3.1443181 0.60090292 1.7034476 0
-3.136703 0.53059578 1.6994752 0
-3.1433129 0.45274651 1.7025418 0
-3.1288471 0.40003932 1.6965315 0
-3.1330523 0.31729937 1.7000517 0
-3.1254766 0.24366796 1.6987038 0
-3.1223898 0.18809485 1.6994617 0
1.7901745 4.8235226 1.8871775 0
1.7927651 4.7278767 1.8488705 0
1.7952027 4.6604528 1.8220054 0
1.7936428 4.0594864 1.8915294 0
1.801275 3.9553275 1.8434261 0
1.7994902 3.4257321 1.874019 0
1.8011093 3.3287373 1.8214087 0
3.4482474 1.1786765 1.8201447 0
3.5735044 1.1814425 1.8965064 0
3.5048316 1.1791433 1.8545327 0
4.0415807 1.1792794 1.8568124 0
4.1559486 1.1290963 1.9117481 0
4.1376014 1.0527894 1.8960611 0
4.1637592 1.0558878 1.9099056 0
4.1638966 0.98815429 1.9052722 0
4.1450682 0.91302216 1.8908335 0
4.1570783 0.84683478 1.8937521 0
4.1599455 0.76170099 1.8917739 0
4.1560102 0.70077837 1.8877947 0
4.1621923 0.62179697 1.8894241 0
4.1346545 0.55554771 1.8741505 0
4.1657143 0.48785102 1.8903533 0
4.1546412 0.40519011 1.8851446 0
4.1683826 0.3489517 1.8933403 0
4.1564751 0.26455855 1.8893832 0
4.1674728 0.20469189 1.8973006 0
4.1623611 0.13238418 1.8979052 0
4.1792097 0.086415052 1.9090592 0
4.9213471 0.23380971 1.915607 0
5.957202 0.23697686 1.9328755 0
7.5897684 0.24383783 1.9757335 0
-5.4988375 5.2411876 1.8012495 0
-5.2422633 5.4917626 1.801603 0
-5.510479 5.1704917 1.7915978 0
-5.127346 5.4938941 1.7835743 0
-5.5003152 5.0378156 1.7683262 0
-5.505012 4.9336147 1.752477 0
-5.5058932 4.8735352 1.743134 0
-5.5034518 4.7969213 1.7307383 0
-4.8427072 5.4914827 1.7383655 0
-5.4940867 4.7163572 1.716617 0
-5.5141125 4.6564188 1.7110069 0
-5.5121646 4.5824161 1.6994572 0
-4.784903 5.4885063 1.7288746 0
-3.1500123 3.4664853 1.8319298 0
-3.1578805 3.3849595 1.8131636 0
-3.1499853 3.3126307 1.79251 0
-3.1565573 3.245573 1.7777264 0
-3.1410995 3.191926 1.7599007 0
-3.1618981 3.1184115 1.748408 0
-3.2242734 3.0214281 1.7447014 0
-3.2707269 2.9445391 1.7416625 0
-3.1384408 1.9054747 1.8260276 0
-3.1287234 1.9159305 1.8237237 0
-3.1378224 1.8231676 1.8118271 0
-3.1501398 1.7523574 1.8056422 0
-3.1407161 1.6825916 1.7909275 0
-3.1457975 1.5977147 1.7808669 0
-3.1438422 1.5315465 1.7710648 0
-3.1442475 1.4535604 1.7613937 0
-3.1309235 1.3926674 1.7482669 0
-3.1453352 1.3250942 1.7472665 0
-3.1384034 1.2474738 1.7362576 0
-3.1219087 1.2573764 1.7298671 0
-3.1407824 1.1846235 1.7315774 0
-3.144536 1.1159524 1.7274221 0
-3.1415691 1.0467116 1.7209185 0
-3.1430597 0.96707129 1.7163607 0
-3.1520171 0.85675025 1.7145419 0
-3.1583097 0.73707473 1.7127258 0
-3.1551671 0.67507064 1.7096589 0
-3.1599345 0.55118525 1.7100284 0
-3.1516242 0.39032984 1.7069345 0
-3.1474895 0.30051672 1.706986 0
-3.1386828 0.17057514 1.7075334 0
-3.1392834 0.054219246 1.7136587 0
-3.1357975 -0.033709764 1.7176352 0
-3.1352267 -0.090871572 1.7215213 0
-3.139632 -0.17519474 1.7303766 0
-3.1341829 -0.24507618 1.7342499 0
-3.1416409 -0.29248643 1.7421744 0
1.7933569 5.0594463 1.9833268 0
1.7927912 4.942234 1.9356616 0
1.7942934 4.2767901 1.9957838 0
1.7975688 4.2456093 1.9814296 0
1.7928913 4.171845 1.9451466 0
1.7909143 4.1080203 1.9141929 0
1.7944238 3.634928 1.9881152 0
1.7984501 3.6012239 1.9704709 0
1.7974654 3.5282674 1.9298979 0
1.8013476 3.4827983 1.9058628 0
3.6115818 1.1777618 1.9191848 0
3.729466 1.1768541 1.9907426 0
3.6643581 1.1764205 1.9510989 0
5.0948725 0.23322845 1.9913691 0
6.19907 0.23821878 2.0190816 0
8.03263 0.24442816 2.0997341 0
-5.4838991 5.4903669 1.840638 0
-5.5132852 5.4309525 1.8353863 0
-5.3554306 5.5026264 1.8217739 0
-5.3868675 5.4785919 1.8227416 0
-5.4969959 5.368979 1.8222414 0
-5.5052586 5.3104548 1.8138328 0
-3.1519411 3.8709767 1.9419874 0
-3.1519911 3.8169436 1.9269127 0
-3.1560328 3.7300091 1.9040421 0
-3.1414967 3.6711013 1.8839139 0
-3.1537523 3.5889571 1.8652807 0
-3.145916 2.4068403 1.9300375 0
-3.1494153 2.3256669 1.9134449 0
-3.1581173 2.2345872 1.8975617 0
-3.1540999 2.1802697 1.8846757 0
-3.1477344 2.105618 1.8671008 0
-3.1432636 2.0398307 1.852542 0
-3.1482191 1.9605048 1.8400259 0
-0.0038251877 5.5251603 2.0673711 0
-0.060314894 5.509366 2.0617876 0
0.073531628 5.5145049 2.0620906 0
0.22120285 5.5176554 2.0630212 0
0.15548778 5.5122652 2.0606697 0
0.35318565 5.5210958 2.0656471 0
0.29578662 5.5146227 2.0622239 0
0.50977492 5.5236287 2.0699887 0
0.44400525 5.5165558 2.0654309 0
0.65823388 5.5298786 2.0776095 0
0.58397198 5.5183692 2.0701029 0
0.7240243 5.5204868 2.0765009 0
0.861485 5.5180426 2.0824697 0
0.80628836 5.5146322 2.0780063 0
0.99707639 5.5217943 2.0924406 0
0.93815708 5.5099707 2.0836272 0
1.0538023 5.5064259 2.0899699 0
1.1708548 5.5112095 2.1010015 0
1.1520505 5.4930573 2.0918901 0
1.7891406 5.3908606 2.1177409 0
1.7859881 5.3117142 2.0850217 0
1.7876601 5.2215137 2.0484803 0
1.7946351 5.154232 2.022042 0
1.7936181 4.4475188 2.0778997 0
1.7925098 4.3344655 2.0231931 0
1.7956661 3.7922595 2.0759952 0
1.7928203 3.7215559 2.0358598 0
1.7987822 3.6907334 2.0202081 0
3.8208194 1.1812912 2.0468423 0
3.8933487 1.1819754 2.091074 0
5.2425857 0.23602748 2.0558174 0
5.4546585 0.23455441 2.1484711 0
6.4720426 0.23901296 2.1164005 0
8.5282536 0.24543262 2.2385316 0
-3.1569676 4.2123833 2.041774 0
-3.1551943 4.0989637 2.0080566 0
-3.1595187 4.0223742 1.9870399 0
-3.1615708 3.9567273 1.9688354 0
-3.1646509 3.9039357 1.95471 0
-3.1619084 2.8043158 2.0335495 0
-3.1567576 2.7395258 2.0147853 0
-0.91066647 5.5029745 2.1040463 0
-0.96301949 5.4982491 2.106679 0
-3.1456082 2.6764674 1.9944143 0
-3.1439559 2.5918224 1.9728059 0
-0.78137243 5.5169864 2.0993299 0
-0.8403933 5.5065613 2.0996816 0
-3.1478131 2.5309334 1.9596345 0
-3.1463516 2.4682636 1.9443357 0
-3.1764386 2.3984222 1.940521 0
-0.63269937 5.5195217 2.0899873 0
-0.70152783 5.5150385 2.0927699 0
-0.55248702 5.5107231 2.081506 0
-0.42443514 5.5150914 2.0765007 0
-0.48981714 5.5003901 2.0737305 0
-0.28008986 5.5171776 2.0711892 0
-0.33783698 5.5083332 2.0697854 0
-0.13684416 5.5179715 2.0670485 0
-0.20401549 5.5170178 2.0685565 0
-0.061916351 5.5217323 2.066931 0
0.061761856 5.5357242 2.0710034 0
1.139384 5.5281053 2.1055253 0
1.106071 5.5292125 2.1034005 0
1.2386084 5.516974 2.1091907 0
1.3648264 5.5162258 2.120537 0
1.3056417 5.5158453 2.1147141 0
1.4999142 5.5348568 2.1421354 0
1.4454693 5.5090566 2.1256738 0
1.6569046 5.5234985 2.1553507 0
1.5862596 5.51578 2.1438897 0
1.733609 5.5170455 2.1622059 0
1.783848 5.4382582 2.1363983 0
1.787271 4.7139091 2.2057343 0
1.788821 4.6686096 2.1840198 0
1.7888274 4.5949812 2.1483338 0
1.7929811 4.5370312 2.121026 0
1.7940371 3.9387994 2.157655 0
1.7910701 3.845319 2.1045282 0
3.9529529 1.180064 2.1271634 0
4.0733871 1.1812509 2.2007003 0
4.1249866 0.96240425 2.2124772 0
4.1420097 0.90288734 2.2189217 0
4.1453924 0.82590473 2.2166812 0
4.1554918 0.75733173 2.2198839 0
4.1601939 0.6964947 2.2206538 0
4.148747 0.62336898 2.2119732 0
4.1498814 0.48352838 2.2118645 0
4.1413631 0.39281273 2.20767 0
4.1417027 0.36230838 2.2085571 0
4.1403942 0.20960808 2.2134361 0
5.6697588 0.23428369 2.2424502 0
6.7790203 0.2394917 2.2258685 0
6.7300472 -0.34701943 2.2204278 0
6.7590322 -0.40173841 2.2327249 0
6.7540603 -0.5227232 2.2359416 0
6.8030024 -0.59731412 2.2565441 0
-5.4907846 3.6893091 2.0803132 0
-5.491302 3.6390576 2.0724001 0
-5.4944859 3.5903206 2.0654936 0
-5.5164609 3.5633998 2.0670087 0
-3.1572564 4.5567136 2.1458836 0
-3.1764965 4.5115261 2.1367352 0
-3.155092 4.4575729 2.1149487 0
-3.1506252 4.3709092 2.0874968 0
-3.1547732 4.3131709 2.0711849 0
-3.1714306 4.2562056 2.0584569 0
-3.1537101 3.1727197 2.1324208 0
-3.1589894 3.086355 2.1095357 0
-3.1557305 2.9617465 2.0734835 0
-3.1666596 2.8826878 2.0561275 0
-3.1541057 2.8414958 2.040329 0
-3.1497214 1.5946761 2.1194324 0
-3.134985 1.5223337 2.1003447 0
-3.1550455 1.4555438 2.1010382 0
-3.1407061 1.3880218 2.0841682 0
-3.1486487 1.3064553 2.0780885 0
-3.1635003 1.2453241 2.0788016 0
-3.14695 1.1794934 2.063046 0
-3.1503191 1.0982856 2.0570021 0
-3.1499166 1.0357002 2.0514932 0
-3.1459966 0.94818699 2.0429819 0
-3.1499355 0.88649166 2.041209 0
-3.1463547 0.81209922 2.0355315 0
-3.1387901 0.74398434 2.0285845 0
-3.1472349 0.67650962 2.0311954 0
-3.150712 0.59630489 2.0314741 0
-3.1411717 0.53490102 2.0258861 0
-3.1415634 0.4609983 2.0262678 0
-3.1422429 0.3931216 2.0275655 0
-3.1431475 0.30643249 2.0302856 0
-3.1458216 0.24414253 2.0339565 0
-3.1435153 0.17587233 2.0359893 0
-3.1439958 0.10071874 2.040498 0
-3.122025 0.11632323 2.0277984 0
-3.1429374 0.044290781 2.0438061 0
-3.1462188 -0.032124043 2.0514166 0
-3.1362376 -0.10026646 2.0521715 0
-3.1383777 -0.18393111 2.0616016 0
-3.1290984 -0.23980212 2.062825 0
-3.1453052 -0.32337832 2.081363 0
-3.1375093 -0.42075682 2.0900929 0
1.7824428 4.9108362 2.3007138 0
1.7849476 4.8644385 2.2785323 0
1.7877105 4.8200197 2.2573829 0
1.7811785 4.7446074 2.2195926 0
1.7859995 4.1758056 2.2894011 0
1.7872477 4.0828991 2.2371809 0
1.7932813 4.0255222 2.2062211 0
4.1524301 1.1130176 2.2421107 0
4.1610708 0.98626983 2.2365108 0
4.1598072 0.91650414 2.2307327 0
4.1617122 0.86270547 2.2287145 0
4.1619997 0.7697531 2.2243433 0
4.1652708 0.70470512 2.2240474 0
4.1706061 0.55611825 2.2245753 0
4.1700621 0.46023607 2.2244687 0
4.1647768 0.32285357 2.2239368 0
4.1517615 0.25334537 2.2184176 0
4.1565528 0.20276916 2.2237315 0
4.1573329 0.12719846 2.2284343 0
4.1691847 0.08188045 2.2386057 0
5.8761501 0.23612571 2.3326161 0
7.1349754 0.23909998 2.3528314 0
9.3343086 0.79738426 2.4707866 0
9.3409424 0.7383461 2.4715369 0
9.3344021 0.70871258 2.4691842 0
9.0725307 0.24757385 2.3909807 0
9.3356619 0.47227144 2.4662933 0
9.338912 0.36868405 2.4662881 0
-5.5117412 4.2686954 2.1851451 0
-5.4995885 4.2203293 2.173372 0
-5.5141973 4.1473141 2.1639674 0
-5.5056839 4.0085154 2.1375077 0
-5.526948 3.9275873 2.1290195 0
-5.5193152 3.8581812 2.1153955 0
-5.5099196 3.7756779 2.0993168 0
-5.5137043 3.7263374 2.0922265 0
-5.5297661 3.6580234 2.0853934 0
-3.1721468 4.8452773 2.2398686 0
-3.1655772 4.7957306 2.2226012 0
-3.1605699 4.7212067 2.1979263 0
-3.1592042 4.6249228 2.1674945 0
-3.1594481 3.5286021 2.2425354 0
-3.1526098 3.4545426 2.21696 0
-3.1630425 3.3846807 2.199091 0
-3.1581929 3.3146915 2.176126 0
-3.1597929 3.2410374 2.1546996 0
-3.1377599 2.1354871 2.2209651 0
-3.1526804 2.0842645 2.2166095 0
-3.1465068 2.0252352 2.2002888 0
-3.1523159 1.948689 2.1868265 0
-3.1432033 1.8987885 2.1717935 0
-3.1497819 1.8188984 2.1593776 0
-3.1570752 1.7398704 2.1482308 0
-3.1573768 1.6796575 2.1377003 0
-3.1582787 1.6068304 2.1258936 0
-3.1573534 -0.37767816 2.0945249 0
-3.1406984 -0.46825624 2.0985353 0
1.7796617 4.9573517 2.3229315 0
1.7824233 4.2253275 2.3166513 0
9.3428097 0.9159503 2.4756954 0
9.3505421 0.85695052 2.4765644 0
9.355011 0.76814198 2.4760282 0
9.3438292 0.50170994 2.4688995 0
9.353138 0.44232702 2.4708948 0
9.3473806 0.36842179 2.4686837 0
9.353014 0.27932143 2.4696901 0
-5.5167408 4.3549209 2.2021723 0
-5.5174069 4.3135576 2.1947269 0
-3.1530375 2.1705358 2.236841 0
-3.1658356 2.13238 2.2342172 0
5.5934024 -2.0358472 0.030535057 0
5.6125922 -1.9817462 0.030576825 0
5.6289325 -1.9257479 0.0306178 0
5.4711766 -2.2305577 0.030360229 0
5.503521 -2.1578543 0.030486293 0
5.556004 -2.0748739 0.030554947 0
5.3727055 -2.4217243 0.029893897 0
5.3979535 -2.3552558 0.030093156 0
5.4425778 -2.2779462 0.030273102 0
2.2341776 0.78196526 -0.098087713 0
2.1574247 0.68854189 -0.098587498 0
2.2034376 0.74048996 -0.098374031 0
2.0172565 0.54550254 -0.099714518 0
2.0535352 0.59132099 -0.098745212 0
2.0942144 0.65723467 -0.097007692 0
1.8925307 0.44765556 -0.10056184 0
1.9496105 0.50304127 -0.099376023 0
1.9830968 0.56064093 -0.097299583 0
1.7813442 0.35432422 -0.1027941 0
1.8345447 0.40218484 -0.10139628 0
1.6592414 0.27504039 -0.10479254 0
1.714125 0.32476711 -0.10279343 0
1.8633257 1.9066569 -0.12768038 0
1.5394384 0.20898056 -0.10690121 0
1.5863903 0.25762248 -0.10431853 0
1.7028348 1.4463172 -0.12482373 0
1.7359916 1.5474207 -0.12227582 0
1.7747378 1.6395808 -0.12248969 0
1.8029248 1.7398423 -0.12237602 0
1.8242097 1.838941 -0.12286079 0
1.8458865 1.9380006 -0.12493437 0
1.8524764 2.0366833 -0.12623616 0
1.8533413 2.1376309 -0.12816934 0
1.8374054 2.2373242 -0.12904242 0
1.8353386 2.3307641 -0.13313821 0
1.4759381 0.18871725 -0.1072913 0
1.5164891 0.22588122 -0.10518955 0
1.5875506 1.303153 -0.12354019 0
1.6166641 1.3580663 -0.12179988 0
1.6755667 1.4481997 -0.12138081 0
1.6932966 1.5202087 -0.11842614 0
1.8015599 2.3728449 -0.13052818 0
1.7930449 2.4481454 -0.1343665 0
1.7602935 2.5376992 -0.13675457 0
1.878227 3.5859394 -0.14978839 0
1.8820326 3.6058693 -0.15198764 0
1.3821847 0.18149996 -0.10648862 0
1.4806898 1.2062833 -0.12271771 0
1.5345179 1.2665186 -0.12165536 0
1.7302108 2.5801625 -0.13636221 0
1.7007067 2.6556625 -0.13987824 0
1.6801866 2.7184892 -0.14394769 0
1.8252186 3.6377687 -0.15300454 0
1.2802062 0.18487537 -0.10519265 0
1.3757422 1.1152319 -0.12433424 0
1.4268615 1.1663196 -0.12245731 0
1.6569378 2.7045071 -0.13943538 0
1.6244552 2.7713137 -0.14334603 0
1.5859839 2.8340223 -0.14665034 0
1.7411966 3.6956387 -0.15604152 0
1.1826859 0.18398488 -0.10473656 0
1.2620819 1.0365964 -0.12649994 0
1.3104126 1.0748949 -0.12466227 0
1.5291944 2.8839667 -0.14723471 0
1.6482401 3.7489059 -0.15888782 0
1.0431447 0.16883838 -0.10603474 0
1.084635 0.19119334 -0.10408972 0
1.1864934 1.0156068 -0.12519722 0
1.4717456 2.9342697 -0.1484658 0
1.4313821 2.9810112 -0.15174663 0
1.5652225 3.7998981 -0.16231617 0
0.97146583 0.17380702 -0.10607794 0
0.98765063 0.18737614 -0.1048118 0
1.0657064 0.9509846 -0.12928002 0
1.1092126 0.98280144 -0.12623616 0
1.3509858 3.0347123 -0.15336296 0
1.3171445 3.0749545 -0.15736994 0
1.4787441 3.8360248 -0.16450132 0
1.4096696 3.8725824 -0.16748784 0
0.87457937 0.18316925 -0.10629396 0
0.89419961 0.20170689 -0.10449442 0
0.97736442 0.92655122 -0.13058282 0
1.2978977 3.0634406 -0.15401879 0
1.253337 3.0991526 -0.1571269 0
1.3755158 3.8764672 -0.16742095 0
0.78161061 0.18268681 -0.10777023 0
0.85907131 0.8894279 -0.13485594 0
0.88084126 0.91194475 -0.13151245 0
1.1584567 3.1499662 -0.16064534 0
1.2671452 3.9176741 -0.1710626 0
0.68159539 0.18514812 -0.10963298 0
0.7656703 0.89449286 -0.13442995 0
0.79440808 0.91788483 -0.13054724 0
1.0681684 3.1813211 -0.16245143 0
1.0571301 3.20491 -0.16646574 0
1.175992 3.940526 -0.17325352 0
0.57852417 0.18512118 -0.1123377 0
0.66869164 0.89289272 -0.136383 0
0.98971152 3.1978192 -0.16309586 0
0.96856886 3.2203341 -0.16692753 0
1.0789187 3.9713783 -0.1769506 0
0.4755061 0.19023526 -0.11518805 0
0.56704277 0.89509428 -0.13928516 0
0.87072039 3.2369518 -0.16879201 0
0.95935702 3.9948788 -0.18044308 0
0.38214555 0.15333629 -0.12170584 0
0.37672147 0.18858826 -0.11901149 0
0.46972841 0.90402615 -0.14241695 0
0.76975948 3.2529082 -0.17206648 0
0.84421688 4.0068021 -0.18323296 0
0.22436604 0.17461896 -0.12681663 0
0.27782917 0.18771029 -0.12328178 0
0.37103441 0.92968082 -0.1445042 0
0.63978261 3.2444019 -0.17281385 0
0.67625588 3.260694 -0.17512283 0
0.77912498 4.013875 -0.18518883 0
0.15802914 0.17412388 -0.13014045 0
0.1968987 0.19310391 -0.12665264 0
0.27434251 0.95475173 -0.14801791 0
0.2595681 0.98593533 -0.14470987 0
0.55738002 3.2481904 -0.17653155 0
0.60598701 3.2673407 -0.17841074 0
0.69711173 4.012094 -0.18663032 0
0.071018755 0.18150544 -0.1341837 0
0.087070137 0.20238101 -0.13162225 0
0.19217065 0.97999668 -0.15155818 0
0.17238705 1.0081081 -0.14950866 0
0.46220455 3.2351551 -0.17867383 0
0.5563677 4.0104485 -0.19017899 0
-0.029917121 0.18307424 -0.13987374 0
0.084217057 1.0467501 -0.15335758 0
0.36131307 3.2150741 -0.18129508 0
0.44030946 4.00208 -0.1930078 0
-0.12820262 0.19649506 -0.14496128 0
0.0091969669 1.0908614 -0.15622196 0
-0.031519383 1.1320784 -0.15612221 0
0.25748697 3.1764498 -0.18230411 0
0.30023086 3.2076516 -0.18447837 0
0.33664191 3.9870901 -0.19525562 0
0.39748576 3.9921067 -0.19338268 0
-0.20853069 0.21500826 -0.14889413 0
-0.232925 0.25070941 -0.14793697 0
-0.10300814 1.1813627 -0.15981531 0
0.11309552 3.1071525 -0.18407537 0
0.16324648 3.141264 -0.18485874 0
0.25721115 3.9750896 -0.19732176 0
-0.31697237 0.28393793 -0.15158561 0
-0.16041166 1.2199042 -0.16356811 0
-0.19718096 1.2751846 -0.16332054 0
-0.016281553 3.0055923 -0.18262258 0
0.042838462 3.071059 -0.18609817 0
0.1452993 3.9441833 -0.19912253 0
-0.4038679 0.34321916 -0.1540487 0
-0.425816 0.36980033 -0.15395644 0
-0.25318715 1.3274554 -0.16689073 0
-0.28654999 1.3791175 -0.16772339 0
-0.12044599 2.9275854 -0.18508305 0
-0.070113048 2.9891078 -0.18736301 0
-0.019825049 3.0358851 -0.18799947 0
0.056105256 3.9102859 -0.19997256 0
0.10200298 3.9339008 -0.20020106 0
-0.47093123 0.35913134 -0.15831475 0
-0.50145376 0.41333973 -0.15725291 0
-0.3294346 1.429579 -0.1707412 0
-0.36550245 1.5080909 -0.17138433 0
-0.39413577 1.588534 -0.1714894 0
-0.22015205 2.8311577 -0.18694891 0
-0.17642996 2.8990717 -0.18943548 0
-0.13441312 2.9519694 -0.19075239 0
-0.057070583 3.8704574 -0.20215957 0
-0.58063042 0.45620692 -0.16126922 0
-0.60363734 0.50657606 -0.16016407 0
-0.4147678 1.5662991 -0.17651218 0
-0.4283751 1.6268933 -0.17582677 0
-0.45435303 1.7244236 -0.17656094 0
-0.46530885 1.8070191 -0.17616908 0
